# .PCD v0.7 - Point Cloud Data file format
VERSION 0.7
FIELDS x y z intensity
SIZE 4 4 4 4
TYPE F F F F
COUNT 1 1 1 1
WIDTH 1248
HEIGHT 1
VIEWPOINT 0 0 0 1 0 0 0
POINTS 1248
DATA ascii
9.0070095 -3.5791612 -0.46484289 65788
9.0250072 -3.5621603 -0.39784342 65788
9.0150089 -3.6241629 -0.39784107 65788
8.9980068 -3.5921621 -0.34484246 65788
8.9900055 -3.5561607 -0.34384394 65788
8.9940052 -3.5661612 -0.28184351 65788
7.9633451 -3.1907775 -0.022257626 65788
7.9463334 -3.1547801 -0.021246806 65788
7.9359946 -3.1431704 -0.017868705 65788
7.9389949 -3.1731718 -0.01786756 65788
7.9249954 -3.1961734 -0.017866829 65788
8.0779943 -3.1871686 0.023134194 65788
8.0049944 -3.1871707 0.024133552 65788
7.9359937 -3.1881726 0.026132973 65788
7.9339943 -3.2021732 0.026133474 65788
8.3253841 -3.2936771 0.014609057 65788
7.6189785 -2.9822485 -1.555233 65788
7.6289787 -2.9312449 -1.5532169 65788
7.617979 -2.9542468 -1.5532244 65788
7.6369748 -2.9342778 -1.4592175 65788
7.6879697 -2.9813039 -1.3992307 65788
7.629971 -2.9723051 -1.3882296 65788
7.6140294 -2.9821706 -1.5538776 65788
7.607029 -2.9381685 -1.5498792 65788
7.6000295 -2.9631701 -1.5498784 65788
7.6460271 -2.9661689 -1.4628779 65788
7.6170263 -2.9281678 -1.4548795 65788
7.7060261 -2.9901683 -1.4028764 65788
7.6730261 -3.0051703 -1.3978761 65788
7.6880255 -2.9551671 -1.3968779 65788
7.7499695 -2.9783025 -1.4092278 65788
7.6990318 -3.000169 -1.6498761 65788
7.6970315 -2.9711676 -1.6478772 65788
7.7180281 -3.0221698 -1.4798752 65788
7.6839671 -3.0183272 -1.3402424 65788
7.6129684 -2.9763265 -1.3252314 65788
7.6149688 -2.9503248 -1.3242233 65788
7.6579647 -2.990351 -1.2612344 65788
7.613966 -2.9453495 -1.2512218 65788
7.6129661 -2.9313483 -1.2502174 65788
7.6399612 -2.9983795 -1.1782374 65788
7.642961 -2.9863789 -1.1772336 65788
7.6399617 -2.9573767 -1.1752245 65788
7.6779552 -3.00442 -1.0652381 65788
7.6579566 -2.9694178 -1.0602279 65788
7.6479568 -2.938416 -1.0572186 65788
7.6859531 -2.9924393 -1.0062342 65788
7.6759524 -3.0164411 -1.006242 65788
7.6779537 -2.9624372 -1.004225 65788
7.6578202 -3.0027659 -1.3361304 65788
7.6358109 -2.9667699 -1.3301179 65788
7.6338029 -2.9377682 -1.328113 65788
7.6258392 -2.9727786 -1.2571155 65788
7.613843 -2.9817829 -1.2561129 65788
7.6188312 -2.9427786 -1.2541088 65788
7.6488738 -2.996779 -1.1811265 65788
7.5018511 -2.8858168 -1.1530621 65788
7.6819191 -3.0147777 -1.06914 65788
7.6669097 -2.9817801 -1.0651302 65788
7.6619015 -2.9517794 -1.0621241 65788
7.6899285 -2.9747765 -1.0081366 65788
7.6619349 -2.9917862 -1.0051301 65788
7.6719232 -2.9547803 -1.0051278 65788
7.6890244 -2.9791684 -1.337877 65788
7.6540246 -2.9941702 -1.3328767 65788
7.6670237 -2.9431672 -1.3318785 65788
7.7080231 -2.9981687 -1.2698761 65788
7.6910233 -3.0191705 -1.2678756 65788
7.6850185 -3.0091703 -1.0668759 65788
7.6940174 -2.9571674 -1.0648779 65788
7.6680179 -2.9751689 -1.0618774 65788
7.6890173 -3.0231709 -1.0088754 65788
7.6830168 -2.9791689 -1.0048771 65788
7.6780167 -2.9911695 -1.0048766 65788
7.674016 -2.9481673 -1.0028783 65788
8.0509424 -3.1690619 -1.4148381 65788
8.1119757 -3.117121 -1.2588454 65788
8.0689812 -3.1301358 -1.2538328 65788
8.0199823 -3.1251547 -1.2458124 65788
8.0009899 -3.1471598 -1.2448119 65788
8.1980658 -3.2281663 -1.0929134 65788
7.7510228 -2.9871671 -1.2748761 65788
7.8240218 -3.0571685 -1.2078729 65788
7.8240213 -3.0291672 -1.206874 65788
8.2559137 -3.182951 -1.5149218 65788
8.2169209 -3.196965 -1.5089109 65788
8.160923 -3.1899874 -1.4988871 65788
8.3579483 -3.2429373 -1.4699799 65788
8.3419371 -3.2069468 -1.4649626 65788
8.1699467 -3.2000141 -1.4358938 65788
8.28403 -3.1931071 -1.1669356 65788
8.2340355 -3.2031252 -1.1599194 65788
8.2160454 -3.2261298 -1.1589196 65788
8.3360567 -3.2221153 -1.1119648 65788
8.2520599 -3.2191472 -1.0999314 65788
8.3630943 -3.2401524 -1.0149809 65788
8.3281021 -3.2571633 -1.0119725 65788
7.7369485 -2.9914701 -0.92023236 65788
7.6889482 -3.0284734 -0.91524535 65788
7.6849489 -2.9994717 -0.91323638 65788
7.6339478 -2.9844904 -0.84923327 65788
7.6399479 -2.9594891 -0.84822536 65788
7.7039442 -3.0205071 -0.8162424 65788
7.7029452 -2.9785039 -0.81522936 65788
7.6989446 -2.9905045 -0.81523317 65788
7.6209431 -2.9875214 -0.75823468 65788
7.6989403 -3.0315413 -0.71824592 65788
7.6319389 -2.9995577 -0.65623808 65788
7.6249394 -2.9695556 -0.65422893 65788
7.6299396 -2.9435539 -0.65322071 65788
7.6789355 -3.0065756 -0.61023879 65788
7.6699371 -2.9745734 -0.6082291 65788
7.6549373 -2.941571 -0.6052193 65788
7.6839623 -2.979785 -0.9151355 65788
7.6729541 -2.9477859 -0.91212714 65788
7.5879664 -2.9708147 -0.90210283 65788
7.6459827 -2.9698002 -0.85212159 65788
7.6379738 -2.9388003 -0.85011435 65788
7.6139889 -2.9848111 -0.8491134 65788
7.6760063 -3.0037963 -0.81513643 65788
7.6370163 -2.9748096 -0.76211941 65788
7.7070384 -3.0007935 -0.72014612 65788
7.6230555 -2.9768214 -0.65611517 65788
7.6180463 -2.9468207 -0.65510905 65788
7.6580806 -3.0058165 -0.61013091 65788
7.6600723 -2.9788136 -0.60912752 65788
7.6640682 -2.9668112 -0.60912699 65788
7.7061129 -3.0018082 -0.51214594 65788
7.6940145 -3.0051699 -0.91487598 65788
7.6810145 -2.9581678 -0.91087788 65788
7.6670141 -2.9661686 -0.90987772 65788
7.6580129 -2.967169 -0.8508777 65788
7.6390128 -2.9881704 -0.84987712 65788
7.6380124 -2.9461684 -0.84787863 65788
7.7130108 -2.9831684 -0.76787663 65788
7.6430087 -3.0051715 -0.65687644 65788
7.640008 -2.9351678 -0.65387905 65788
7.6370082 -2.9481685 -0.65387857 65788
7.6300082 -2.9731703 -0.65387774 65788
7.8249283 -3.0676157 -0.52125329 65788
8.5221224 -3.2821207 -0.97305554 65788
8.458127 -3.2881434 -0.96603262 65788
8.4141321 -3.301158 -0.96201968 65788
8.7151537 -3.3590667 -0.95215422 65788
8.6621599 -3.3700848 -0.94613707 65788
8.5861645 -3.3721123 -0.93810838 65788
8.9001913 -3.439019 -0.92225069 65788
8.8021936 -3.4330547 -0.91121089 65788
8.718195 -3.4310853 -0.90217781 65788
7.7821584 -3.0417948 -0.41717666 65788
7.7831502 -3.0137923 -0.4161728 65788
7.7821455 -2.9987915 -0.41517025 65788
7.8492718 -3.0707963 -0.12420278 65788
7.8642592 -3.0337894 -0.1242022 65788
7.8342648 -3.0497999 -0.12319478 65788
7.8389964 -3.0451682 -0.11987322 65788
7.8139968 -3.0631697 -0.11987277 65788
7.8259969 -3.0821705 -0.11987195 65788
7.8299961 -3.0131669 -0.1188745 65788
8.5659027 -3.3237302 -0.31731012 65788
8.8738937 -3.4217634 -0.27433118 65788
8.8088942 -3.4287624 -0.27133527 65788
9.0258846 -3.5527942 -0.22836703 65788
9.1440096 -3.510155 -0.51984453 65788
9.1330099 -3.5391564 -0.51984346 65788
9.1180105 -3.5501573 -0.51884311 65788
9.1070108 -3.5781589 -0.5188421 65788
9.0310087 -3.5561597 -0.46584359 65788
9.0460081 -3.4961569 -0.46484587 65788
9.0290089 -3.5221584 -0.46484497 65788
9.0450068 -3.4881566 -0.3968462 65788
9.0430069 -3.5041573 -0.39684558 65788
9.0250063 -3.5291588 -0.39684471 65788
9.0240059 -3.488157 -0.34384635 65788
9.0070057 -3.5301592 -0.34384483 65788
9.0050058 -3.4971581 -0.34284613 65788
9.0030041 -3.4561565 -0.28084776 65788
8.9790039 -3.5111592 -0.28084579 65788
8.9680042 -3.52316 -0.27984542 65788
7.9613256 -3.1317742 -0.021248324 65788
7.9733181 -3.107769 -0.021248709 65788
7.9683123 -3.0907693 -0.021244569 65788
7.9803042 -3.0667639 -0.021244938 65788
7.9359941 -3.071167 -0.016871406 65788
7.9259944 -3.0961683 -0.016870555 65788
7.9249945 -3.1101689 -0.016870039 65788
8.1259947 -3.1471653 0.022133093 65788
8.1199942 -3.1741669 0.022134066 65788
8.363368 -3.247663 0.013603332 65788
8.3973618 -3.2306516 0.013594698 65788
8.3363752 -3.2676723 0.014609242 65788
7.6739783 -2.9212427 -1.5612123 65788
7.5779805 -2.8432415 -1.5371909 65788
7.7259741 -2.9122736 -1.4742079 65788
7.6699743 -2.919276 -1.4642118 65788
7.6529722 -2.885299 -1.3862019 65788
7.6907501 -2.9357407 -1.4711313 65788
7.6880283 -2.8861635 -1.5618805 65788
7.6180282 -2.8871655 -1.547881 65788
7.6020284 -2.9081671 -1.5468805 65788
7.6490254 -2.8711638 -1.4568814 65788
7.635026 -2.8801649 -1.4548812 65788
7.6230264 -2.9021661 -1.4548805 65788
7.7140255 -2.9371655 -1.4008783 65788
7.7180243 -2.8971634 -1.3988799 65788
7.7079778 -2.9202414 -1.5682111 65788
7.7559705 -2.9523003 -1.4092195 65788
7.761025 -2.9281638 -1.4078783 65788
7.6519685 -2.9363229 -1.3292177 65788
7.6899662 -2.9063451 -1.2612072 65788
7.6129665 -2.9043465 -1.2492089 65788
7.6419621 -2.9303753 -1.1742162 65788
7.6299624 -2.8983734 -1.1702065 65788
7.6319633 -2.8713715 -1.1691982 65788
7.6539574 -2.9124141 -1.0572102 65788
7.6519585 -2.8844123 -1.0552015 65788
7.6629543 -2.9284351 -1.0002149 65788
7.6589556 -2.8854322 -0.99720168 65788
7.6489553 -2.8954332 -0.99620503 65788
7.6527953 -2.9177608 -1.3301162 65788
7.6417871 -2.885762 -1.3261077 65788
7.6387825 -2.8707616 -1.3251045 65788
7.6228232 -2.9167752 -1.2531062 65788
7.6278148 -2.8907719 -1.2521038 65788
7.616806 -2.8597727 -1.2490957 65788
7.648849 -2.9137726 -1.1761142 65788
7.6508412 -2.8877699 -1.1751109 65788
7.6428366 -2.8707712 -1.1731057 65788
7.6638937 -2.9247766 -1.0611207 65788
7.6588888 -2.9087772 -1.0591166 65788
7.6568804 -2.8807757 -1.0581118 65788
7.6849155 -2.9317749 -1.0051286 65788
7.6799059 -2.9017742 -1.0031224 65788
7.6678972 -2.8707755 -1.000114 65788
7.7050233 -2.9301655 -1.3378787 65788
7.7120218 -2.9441659 -1.266878 65788
7.6530204 -2.8661635 -1.2528815 65788
7.6690197 -2.9141657 -1.1768796 65788
7.6630197 -2.898165 -1.1758802 65788
7.6600189 -2.8701634 -1.1738813 65788
7.6900172 -2.9411666 -1.0638784 65788
7.6820173 -2.9111652 -1.0608796 65788
7.6800165 -2.8831637 -1.0588807 65788
7.6970153 -2.9011643 -1.0028799 65788
7.6830158 -2.924166 -1.0028791 65788
7.8179669 -2.9433191 -1.3572148 65788
7.7459679 -2.9443209 -1.3452173 65788
7.7989645 -2.9193432 -1.2792079 65788
7.767024 -2.9401643 -1.3488778 65788
8.5179396 -3.2438755 -1.4970422 65788
8.4319239 -3.1809144 -1.4789894 65788
8.2909365 -3.114012 -1.3729141 65788
8.2429428 -3.1260295 -1.365899 65788
8.4250116 -3.1570578 -1.1849791 65788
8.3800173 -3.170073 -1.1799657 65788
8.3160229 -3.1750965 -1.1709424 65788
8.6450567 -3.2629974 -1.1560973 65788
8.5890656 -3.2880154 -1.1500833 65788
8.4860344 -3.173064 -1.1300077 65788
8.4670506 -3.1780899 -1.087002 65788
8.6010838 -3.2390649 -1.0450728 65788
8.4320908 -3.2361271 -1.0240064 65788
7.69695 -2.9484677 -0.91222018 65788
7.6999512 -2.8944643 -0.91020322 65788
7.6719513 -2.9114654 -0.90820938 65788
7.6839519 -2.8744631 -0.90719742 65788
7.6389494 -2.9034851 -0.84620792 65788
7.6229486 -2.9244864 -0.84521502 65788
7.6099496 -2.8514817 -0.8401925 65788
7.6009498 -2.8754833 -0.8402003 65788
7.6979456 -2.9485016 -0.81322014 65788
7.6789474 -2.886498 -0.80820137 65788
7.6329455 -2.8685129 -0.75519717 65788
7.6489406 -2.8825493 -0.65320104 65788
7.6379404 -2.9185522 -0.65321261 65788
7.6409407 -2.8925505 -0.65220445 65788
7.7339373 -2.9025686 -0.61120468 65788
7.6679492 -2.9327867 -0.91012329 65788
7.6569405 -2.9007878 -0.90711486 65788
7.6509318 -2.8707876 -0.90510839 65788
7.6209688 -2.9188042 -0.8471058 65788
7.6319609 -2.8957992 -0.84710592 65788
7.6049509 -2.8578048 -0.84209144 65788
7.6809726 -2.8957868 -0.81112194 65788
7.6170335 -2.905818 -0.65310258 65788
7.6300259 -2.8828123 -0.65310335 65788
7.6070375 -2.9158218 -0.6521008 65788
7.6160159 -2.8508143 -0.65109402 65788
7.6640596 -2.9398096 -0.608123 65788
7.6700506 -2.9138057 -0.60812104 65788
7.6490412 -2.8788097 -0.60510898 65788
7.7170925 -2.9368 -0.51113987 65788
7.7180843 -2.9097977 -0.51013613 65788
7.6820135 -2.9031651 -0.90887988 65788
7.6770139 -2.9291663 -0.90887892 65788
7.6800127 -2.8751636 -0.90688097 65788
7.6590118 -2.8991654 -0.84788024 65788
7.6480122 -2.9221668 -0.84787947 65788
7.6210113 -2.8571644 -0.84188211 65788
7.6950111 -2.8791633 -0.80888069 65788
7.6790109 -2.8871644 -0.80788052 65788
7.6730108 -2.9131658 -0.80787963 65788
7.7160106 -2.9291654 -0.76687866 65788
7.7020106 -2.9511669 -0.7658779 65788
7.7130098 -2.9001641 -0.7648797 65788
7.6370082 -2.8571639 -0.70488197 65788
7.6310072 -2.8761649 -0.65088135 65788
7.6220078 -2.9001667 -0.65088052 65788
8.6941166 -3.2860577 -0.99412346 65788
8.5871172 -3.2770972 -0.98107922 65788
8.9111547 -3.3859932 -0.97623855 65788
8.8041563 -3.3770325 -0.96319431 65788
7.7721362 -2.967792 -0.41416237 65788
7.7861285 -2.9447863 -0.41416353 65788
7.7461557 -2.9148033 -0.31214598 65788
7.853231 -2.9447863 -0.12218535 65788
7.8292384 -2.9637952 -0.12118037 65788
7.8319955 -2.957164 -0.11887658 65788
7.8339958 -2.9861653 -0.11887548 65788
7.8329959 -2.9301627 -0.1178776 65788
7.7379942 -2.9531665 -0.060877539 65788
7.8362479 -2.9947951 -0.12218727 65788
8.9838953 -3.4227448 -0.34132826 65788
8.9778957 -3.3717411 -0.33931273 65788
8.9708948 -3.400743 -0.33932188 65788
9.1990099 -3.4651518 -0.52284592 65788
9.1720095 -3.4881535 -0.52084523 65788
9.0840073 -3.4291532 -0.46584821 65788
9.0790081 -3.4601548 -0.46584702 65788
9.0590076 -3.4681554 -0.46484688 65788
9.0940056 -3.409152 -0.39784896 65788
9.0850058 -3.4381535 -0.39784786 65788
9.0520067 -3.4581552 -0.39684734 65788
9.0490046 -3.3991528 -0.34384972 65788
9.0400047 -3.4291542 -0.34384859 65788
9.0380049 -3.4611557 -0.3438473 65788
7.989296 -3.0417595 -0.021244168 65788
7.9992871 -3.0167546 -0.021243716 65788
7.937994 -3.0431654 -0.016872443 65788
7.930994 -2.9841626 -0.015874734 65788
7.9159937 -3.0061641 -0.015874026 65788
8.135993 -3.1221638 0.022132225 65788
8.1149931 -3.0701618 0.023130067 65788
8.1159935 -3.0991633 0.023131182 65788
8.1059933 -3.0371606 0.024128729 65788
8.4643536 -3.2116301 0.01157557 65788
8.5083475 -3.1976161 0.011563236 65788
8.4283543 -3.2126412 0.012587199 65788
7.6729832 -2.836211 -1.6321858 65788
7.6449833 -2.7992096 -1.6241751 65788
7.5489812 -2.8052399 -1.5291799 65788
7.5519814 -2.7792382 -1.5271717 65788
7.550981 -2.7522366 -1.5251633 65788
7.6329756 -2.8502727 -1.4531914 65788
7.5779767 -2.8022714 -1.4391782 65788
7.5769768 -2.7752693 -1.4381696 65788
7.579977 -2.7632687 -1.437166 65788
7.6179729 -2.8442972 -1.3781902 65788
7.6189733 -2.8172956 -1.3761816 65788
7.6169729 -2.7892938 -1.3741729 65788
7.6159735 -2.7752929 -1.3731686 65788
7.6716795 -2.8047302 -1.5541053 65788
7.6847396 -2.8097382 -1.3891102 65788
7.6990252 -2.8621619 -1.4658812 65788
7.682025 -2.8281608 -1.4598827 65788
7.6650243 -2.7951596 -1.4548842 65788
7.7030234 -2.8371606 -1.3918822 65788
7.6940236 -2.8611622 -1.3918813 65788
7.7060227 -2.810159 -1.3908832 65788
7.8536921 -2.9006796 -1.5961791 65788
7.7369685 -2.8853173 -1.3401992 65788
7.6189709 -2.8283167 -1.317185 65788
7.6079712 -2.7973151 -1.3131756 65788
7.6069717 -2.7693133 -1.311167 65788
7.6299639 -2.8033667 -1.1651769 65788
7.607964 -2.8353693 -1.1641877 65788
7.6069651 -2.8083677 -1.162179 65788
7.6559587 -2.8444099 -1.0531888 65788
7.6479588 -2.8554103 -1.0531926 65788
7.6349592 -2.7824056 -1.0471702 65788
7.6259594 -2.8064077 -1.047178 65788
7.685955 -2.8684309 -1.0001955 65788
7.6579561 -2.8304288 -0.99418449 65788
7.6609569 -2.8044269 -0.99317628 65788
7.643775 -2.8457582 -1.3241023 65788
7.6307664 -2.8137598 -1.3200934 65788
7.6267581 -2.784759 -1.3170875 65788
7.6277952 -2.8227665 -1.2480937 65788
7.6177983 -2.8327706 -1.2470919 65788
7.6127863 -2.7897687 -1.2440839 65788
7.6538286 -2.8467658 -1.1731057 65788
7.6438203 -2.8167665 -1.1700981 65788
7.6508126 -2.7917628 -1.1700965 65788
7.6528726 -2.8517747 -1.0551063 65788
7.6528645 -2.8247726 -1.0541022 65788
7.6518555 -2.7967708 -1.0520976 65788
7.6658893 -2.841774 -0.99810892 65788
7.667881 -2.8157713 -0.99710566 65788
7.6860223 -2.854162 -1.3298818 65788
7.6760216 -2.8231606 -1.3258829 65788
7.6630211 -2.7911592 -1.3218843 65788
7.6590195 -2.8001599 -1.2498839 65788
7.6410203 -2.8481631 -1.2498823 65788
7.63902 -2.8201616 -1.2478834 65788
7.6640186 -2.8441622 -1.1728822 65788
7.6640182 -2.8161607 -1.1708833 65788
7.6540174 -2.7861595 -1.1678845 65788
7.6820164 -2.8561623 -1.0578816 65788
7.6790152 -2.8001595 -1.0548837 65788
7.6740155 -2.825161 -1.0548828 65788
7.7140145 -2.8111594 -1.0008831 65788
7.688015 -2.8431616 -0.99888211 65788
7.681015 -2.8681631 -0.99888122 65788
7.6720142 -2.8101602 -0.99488348 65788
7.8929629 -2.8983397 -1.2921985 65788
7.857964 -2.9143414 -1.2882046 65788
8.6108999 -3.1408494 -1.5060467 65788
8.5369043 -3.1438777 -1.4940188 65788
8.4839067 -3.1398981 -1.4849969 65788
8.4629164 -3.1619043 -1.4829956 65788
8.4129143 -3.0699697 -1.3899479 65788
8.3789215 -3.0879815 -1.3849401 65788
8.3359289 -3.1009967 -1.3789274 65788
8.4719458 -3.0879879 -1.3109764 65788
8.3799496 -3.0840228 -1.2969394 65788
8.3379517 -3.0840387 -1.290923 65788
8.2799578 -3.0920599 -1.2829028 65788
8.6139994 -3.1519871 -1.2120512 65788
8.5560055 -3.1610084 -1.2040313 65788
8.461009 -3.1550443 -1.1899925 65788
8.7050295 -3.1919808 -1.1610987 65788
8.5430288 -3.1630437 -1.1370269 65788
7.6909523 -2.8224592 -0.90618104 65788
7.6839523 -2.847461 -0.90618902 65788
7.6249499 -2.8294797 -0.84118521 65788
7.6129513 -2.7984781 -0.83817583 65788
7.6899476 -2.8624961 -0.8081935 65788
7.6999478 -2.8114927 -0.80717725 65788
7.6929479 -2.8364942 -0.80718529 65788
7.6419458 -2.8445113 -0.75518936 65788
7.6399469 -2.8165095 -0.75318074 65788
7.7439427 -2.8405282 -0.71518493 65788
7.7389426 -2.86553 -0.71519291 65788
7.741941 -2.8345463 -0.66018319 65788
7.8509364 -2.8895679 -0.62119699 65788
7.7959371 -2.8975682 -0.61620122 65788
7.6819086 -2.8007722 -0.90610796 65788
7.6619239 -2.8477821 -0.90510851 65788
7.6639161 -2.8207793 -0.90410513 65788
7.6339355 -2.8147924 -0.84409446 65788
7.6139431 -2.8338001 -0.84209079 65788
7.6209264 -2.7817941 -0.8410852 65788
7.6759596 -2.8527851 -0.80811381 65788
7.6799512 -2.8257821 -0.80811101 65788
7.6719432 -2.7957821 -0.8051039 65788
7.6550021 -2.8107989 -0.65310061 65788
7.6230078 -2.8258102 -0.65109253 65788
7.6780262 -2.8347974 -0.60611176 65788
7.6640339 -2.8568032 -0.60511053 65788
7.6760125 -2.8461621 -0.90488201 65788
7.6800122 -2.8201606 -0.90388298 65788
7.658011 -2.8161609 -0.84388334 65788
7.6490111 -2.8401625 -0.8438825 65788
7.6400104 -2.7961605 -0.84088427 65788
7.6810107 -2.847162 -0.80588198 65788
7.6990094 -2.8671627 -0.76188111 65788
7.686008 -2.8611627 -0.70988142 65788
7.6360068 -2.824162 -0.64988321 65788
7.6390061 -2.7971606 -0.64888418 65788
7.6230068 -2.8461637 -0.64888251 65788
7.6360059 -2.8261623 -0.59888315 65788
7.7490039 -2.858161 -0.50888103 65788
7.9019361 -2.8795671 -0.62619227 65788
7.885035 -2.8967381 -0.62718862 65788
8.7910604 -3.2539635 -1.1331512 65788
8.8910694 -3.2369583 -1.0821848 65788
8.9601231 -3.339956 -1.0282433 65788
7.8412209 -2.9127877 -0.12117664 65788
7.8502173 -2.9017842 -0.12117792 65788
7.8462076 -2.8717835 -0.1211721 65788
7.8602338 -2.8947845 -0.066180125 65788
7.8332229 -2.8567898 -0.065165602 65788
7.7630014 -2.8461599 -0.40788135 65788
7.8489952 -2.8941603 -0.11887883 65788
7.8359952 -2.8611591 -0.11788019 65788
7.8269954 -2.913162 -0.11787829 65788
7.7659936 -2.8381598 -0.059881624 65788
7.7179933 -2.8351607 -0.058882136 65788
9.0429001 -3.291719 -0.3932862 65788
9.0268984 -3.3187203 -0.39229497 65788
9.114006 -3.3841507 -0.39884979 65788
9.031003 -3.3691521 -0.28085101 65788
7.9882541 -2.9127505 -0.020224575 65788
7.9302721 -2.9627717 -0.019213153 65788
7.9372635 -2.9367676 -0.019211544 65788
7.9212575 -2.9167712 -0.018203324 65788
7.9049931 -2.9041593 -0.014877987 65788
7.9069934 -2.9321606 -0.014876905 65788
7.9079933 -2.9471614 -0.014876327 65788
8.1019936 -3.0071592 0.024127547 65788
8.0809927 -2.9701581 0.025125956 65788
8.544342 -3.1806042 0.010553964 65788
7.6639838 -2.7792077 -1.6261684 65788
7.654984 -2.7482061 -1.6221589 65788
7.6469846 -2.7182047 -1.6181498 65788
7.5689812 -2.7312348 -1.5271561 65788
7.5379825 -2.6802323 -1.5181412 65788
7.5259824 -2.702234 -1.5171484 65788
7.626977 -2.7252648 -1.4431524 65788
7.593977 -2.741267 -1.4381586 65788
7.6299734 -2.7532909 -1.3741611 65788
7.6259742 -2.7252893 -1.3721526 65788
7.6446753 -2.7817373 -1.547093 65788
7.6526599 -2.7297304 -1.5450877 65788
7.6326671 -2.7497382 -1.5430841 65788
7.6867313 -2.7827356 -1.3881068 65788
7.688715 -2.7287309 -1.3850993 65788
7.6747231 -2.7517371 -1.3840983 65788
7.6770234 -2.7451563 -1.4538859 65788
7.6640239 -2.768158 -1.452885 65788
7.6970224 -2.7791579 -1.3878844 65788
7.6099715 -2.7433112 -1.3101586 65788
7.6129723 -2.7183096 -1.3091508 65788
7.6959667 -2.7983375 -1.2561733 65788
7.6099687 -2.7533367 -1.2391617 65788
7.6089692 -2.7263346 -1.2381535 65788
7.6139698 -2.7003329 -1.2371451 65788
7.7949624 -2.8353658 -1.1921818 65788
7.6419597 -2.7574039 -1.0471622 65788
7.6429605 -2.7304018 -1.0461535 65788
7.6769576 -2.7554233 -0.99316043 65788
7.6679573 -2.7794249 -0.99316823 65788
7.671958 -2.7404222 -0.99215591 65788
7.6407509 -2.762753 -1.3180889 65788
7.6397424 -2.7357512 -1.3170843 65788
7.6257381 -2.7177541 -1.313077 65788
7.6087775 -2.7607677 -1.2420781 65788
7.6177702 -2.7377629 -1.2420775 65788
7.6057611 -2.7057645 -1.2380687 65788
7.656796 -2.7397566 -1.1680905 65788
7.6408038 -2.7607634 -1.1670885 65788
7.6447916 -2.7217588 -1.1650838 65788
7.6588478 -2.7727671 -1.0520962 65788
7.648839 -2.7417676 -1.0490881 65788
7.6408348 -2.7247689 -1.047083 65788
7.6708736 -2.7897687 -0.99610263 65788
7.6708608 -2.7487655 -0.9940964 65788
7.6738529 -2.7227626 -0.99309343 65788
7.6468678 -2.7667742 -0.99209142 65788
7.6670203 -2.7521572 -1.3198857 65788
7.6620207 -2.7641578 -1.3198854 65788
7.6440201 -2.716156 -1.3138872 65788
7.6510191 -2.7691586 -1.2468852 65788
7.6550188 -2.7171557 -1.2448871 65788
7.6410184 -2.7391572 -1.2438864 65788
7.6590171 -2.7601578 -1.1668855 65788
7.6550169 -2.7181556 -1.1648871 65788
7.6520171 -2.7441573 -1.1648861 65788
7.6740146 -2.7571573 -1.0518855 65788
7.6730146 -2.7701581 -1.051885 65788
7.6750145 -2.7301559 -1.0498863 65788
7.6940131 -2.7501564 -0.99488556 65788
7.6860137 -2.774158 -0.99488473 65788
7.8869619 -2.8123627 -1.2041718 65788
7.8649616 -2.8323641 -1.2021787 65788
8.6578913 -3.1268325 -1.5130606 65788
8.6259127 -3.1028857 -1.4250408 65788
8.4489126 -3.0689564 -1.3949616 65788
8.6209354 -3.0809321 -1.333032 65788
8.5349398 -3.0799646 -1.3199984 65788
8.6869946 -3.1479597 -1.2230783 65788
8.7150211 -3.1649795 -1.1610944 65788
7.700953 -2.7714558 -0.90516466 65788
7.7039533 -2.7454538 -0.90415651 65788
7.6869526 -2.7934573 -0.904172 65788
7.7049532 -2.7314532 -0.90315211 65788
7.6419511 -2.7544746 -0.84016114 65788
7.6259513 -2.7754762 -0.83916825 65788
7.6359515 -2.7254727 -0.83815229 65788
7.6229525 -2.7074714 -0.83514708 65788
7.7079487 -2.77349 -0.8061651 65788
7.6949487 -2.7964916 -0.80617273 65788
7.7049494 -2.7454879 -0.80515647 65788
7.8399401 -2.8015435 -0.6691699 65788
7.8249402 -2.8095443 -0.66717285 65788
7.7909408 -2.8245451 -0.66517854 65788
7.6939011 -2.7777667 -0.90610832 65788
7.6309237 -2.7727904 -0.84108704 65788
7.6269145 -2.7437892 -0.84008133 65788
7.6259065 -2.7167876 -0.83807683 65788
7.6619339 -2.7647827 -0.803096 65788
7.6709266 -2.7407782 -0.80309522 65788
7.8350053 -2.8497462 -0.67216522 65788
7.8380008 -2.8367441 -0.6721642 65788
7.8429923 -2.8107407 -0.67216194 65788
7.8439832 -2.7837386 -0.67115808 65788
7.8780088 -2.8097336 -0.62317312 65788
7.6830115 -2.7531571 -0.90188551 65788
7.6800113 -2.7791586 -0.90188456 65788
7.6720119 -2.7901592 -0.9018842 65788
7.6730108 -2.7221556 -0.89888674 65788
7.6440101 -2.7431576 -0.83988619 65788
7.6300101 -2.7651591 -0.83888549 65788
7.6300097 -2.7111561 -0.83688754 65788
7.6910095 -2.7681575 -0.80388492 65788
7.6830091 -2.7381561 -0.80188608 65788
7.9839354 -2.8385644 -0.63217711 65788
7.9499354 -2.8695662 -0.63018775 65788
7.9399362 -2.8515654 -0.62818241 65788
7.8860264 -2.8687356 -0.6261847 65788
7.8750172 -2.8367364 -0.62417626 65788
8.8169146 -3.1408091 -1.4581268 65788
8.8559856 -3.1468968 -1.2471437 65788
8.774991 -3.148927 -1.2351128 65788
8.9530163 -3.1868887 -1.1951938 65788
8.7840157 -3.1589544 -1.1701193 65788
7.8861928 -2.8307681 -0.12217894 65788
7.8582001 -2.848778 -0.12117254 65788
7.8721828 -2.7977703 -0.12116937 65788
7.8222175 -2.8387921 -0.065159298 65788
7.8142076 -2.8077924 -0.064151995 65788
7.8312001 -2.7867856 -0.064154342 65788
7.7329984 -2.8061588 -0.30588311 65788
7.7079954 -2.7811582 -0.16088426 65788
7.8409944 -2.7801547 -0.11688323 65788
7.8279948 -2.8301575 -0.11688143 65788
7.8159947 -2.7981563 -0.11588274 65788
7.7809935 -2.7611551 -0.059884433 65788
7.7559934 -2.8071582 -0.059882879 65788
8.0771141 -2.9386964 -0.43425751 65788
8.0551071 -2.9167016 -0.43224701 65788
8.0500984 -2.8857012 -0.43124074 65788
8.055089 -2.8596976 -0.43123844 65788
8.0031004 -2.8397152 -0.38521844 65788
7.9049916 -2.8061545 0.02911826 65788
8.0972557 -2.9237185 -0.023261786 65788
8.1062469 -2.8987138 -0.02326096 65788
7.9159927 -2.8511565 -0.014879924 65788
7.9179931 -2.8801579 -0.014878798 65788
7.9039922 -2.819155 -0.013881247 65788
8.1079922 -2.9221549 0.024124317 65788
8.0669928 -2.8931544 0.025122877 65788
8.0809927 -2.9411566 0.02512484 65788
7.7069836 -2.6992011 -1.6291418 65788
7.7029834 -2.7112019 -1.6291457 65788
7.5479827 -2.6572306 -1.5181336 65788
7.5389838 -2.6002269 -1.513116 65788
7.5339832 -2.6252289 -1.513124 65788
7.6279774 -2.6992629 -1.4421443 65788
7.6049781 -2.6642613 -1.4351339 65788
7.5969787 -2.6212587 -1.4311208 65788
7.5799789 -2.6292598 -1.4281237 65788
7.7879725 -2.7282851 -1.4001485 65788
7.7329731 -2.7362866 -1.3911527 65788
7.7349734 -2.6822834 -1.3881358 65788
7.647975 -2.6382828 -1.3701246 65788
7.6496429 -2.6747274 -1.5410782 65788
7.6356506 -2.6967335 -1.5400771 65788
7.6556354 -2.6497235 -1.5400763 65788
7.6396317 -2.6307271 -1.5360682 65788
7.6747069 -2.6967328 -1.3800898 65788
7.6677032 -2.6807339 -1.378085 65788
7.6636949 -2.6527326 -1.3760796 65788
7.7780247 -2.6991513 -1.5658869 65788
7.7020226 -2.6861527 -1.454888 65788
7.689023 -2.7091544 -1.4538871 65788
7.6870227 -2.7211549 -1.4538867 65788
7.8219705 -2.6953027 -1.3431373 65788
7.7069716 -2.6833048 -1.3231368 65788
7.648972 -2.6763058 -1.3131365 65788
7.6239724 -2.6943073 -1.3101428 65788
7.6009703 -2.6423287 -1.2321272 65788
7.5839696 -2.663331 -1.2301344 65788
7.6529608 -2.7074001 -1.0461462 65788
7.6349611 -2.6873991 -1.0421404 65788
7.6389618 -2.6343954 -1.0401236 65788
7.6329618 -2.6593976 -1.0401316 65788
7.6859579 -2.718421 -0.99214858 65788
7.6759582 -2.6874185 -0.99013919 65788
7.6729589 -2.6594167 -0.98813045 65788
7.6177297 -2.6877544 -1.3100699 65788
7.6277223 -2.6647496 -1.3100697 65788
7.6177139 -2.6337502 -1.3070616 65788
7.610754 -2.6807611 -1.2370665 65788
7.6187458 -2.6567566 -1.2370653 65788
7.5967412 -2.635762 -1.233055 65788
7.6417837 -2.693758 -1.1630785 65788
7.6357751 -2.6647575 -1.1610721 65788
7.6377673 -2.6387548 -1.1600688 65788
7.6358261 -2.6957681 -1.045077 65788
7.6508107 -2.6477602 -1.0450745 65788
7.6348181 -2.6687663 -1.0430725 65788
7.6778364 -2.6697574 -0.9910866 65788
7.6638441 -2.6917632 -0.99008542 65788
7.6610193 -2.6961546 -1.3158878 65788
7.659019 -2.668153 -1.3138889 65788
7.6580186 -2.6401515 -1.31189 65788
7.654017 -2.649152 -1.2408898 65788
7.6390176 -2.6841543 -1.2398885 65788
7.6320176 -2.6681538 -1.2378892 65788
7.654016 -2.6911545 -1.1628881 65788
7.6590157 -2.6661527 -1.161889 65788
7.6580157 -2.6381514 -1.1608901 65788
7.682014 -2.7051544 -1.0498873 65788
7.6600132 -2.6711533 -1.0448887 65788
7.6610131 -2.6441519 -1.0438899 65788
7.682013 -2.7181551 -0.99188685 65788
7.6760125 -2.6891537 -0.98988801 65788
7.6750121 -2.6481516 -0.98788953 65788
7.6560121 -2.6551526 -0.98588943 65788
7.9299622 -2.7573578 -1.2081532 65788
7.9159622 -2.7663589 -1.2061565 65788
7.9089618 -2.7923608 -1.2061648 65788
7.7369542 -2.6884496 -0.9051376 65788
7.7239537 -2.7114513 -0.90514523 65788
7.6589532 -2.6394663 -0.83712465 65788
7.6439533 -2.6604679 -0.83613175 65788
7.6329527 -2.6834695 -0.83613926 65788
7.7039499 -2.7174859 -0.80414772 65788
7.8679404 -2.7835422 -0.67116338 65788
7.6918802 -2.7087622 -0.90309715 65788
7.685863 -2.6527598 -0.90008664 65788
7.6648703 -2.671768 -0.89808267 65788
7.6168981 -2.6867881 -0.83606935 65788
7.62989 -2.6637824 -0.83607006 65788
7.5928802 -2.623791 -0.8300519 65788
7.6749182 -2.7157753 -0.80209273 65788
7.6709094 -2.6867743 -0.8010869 65788
7.6559048 -2.6687775 -0.79807931 65788
7.6478958 -2.6387777 -0.79607207 65788
7.6379328 -2.7017889 -0.75107855 65788
7.6389236 -2.6747866 -0.75007468 65788
7.6179147 -2.6407905 -0.74606258 65788
7.8859787 -2.7157247 -0.6211614 65788
7.6680107 -2.6931543 -0.8968879 65788
7.6670098 -2.6661527 -0.89588898 65788
7.6430092 -2.6881547 -0.83688831 65788
7.6290092 -2.6561532 -0.8338896 65788
7.6200085 -2.6261518 -0.83189088 65788
7.6840086 -2.6981542 -0.80088758 65788
7.6680083 -2.6661527 -0.79688895 65788
7.7900043 -2.7031517 -0.60988659 65788
7.8420024 -2.7121508 -0.51188588 65788
7.833003 -2.7371523 -0.51188499 65788
7.9249401 -2.775542 -0.67615914 65788
7.9209404 -2.7465396 -0.67515022 65788
8.0819349 -2.7875609 -0.63915813 65788
8.0509348 -2.805562 -0.63716477 65788
8.0159359 -2.8215632 -0.63417077 65788
7.8939786 -2.7737224 -0.67517287 65788
7.8989697 -2.7467189 -0.67517042 65788
7.9479957 -2.7787099 -0.62919122 65788
7.9300032 -2.8007171 -0.62818873 65788
7.9209857 -2.7417154 -0.62517679 65788
8.6229248 -3.0509341 -1.3320239 65788
8.8269272 -3.0908535 -1.3641155 65788
8.9509811 -3.1488605 -1.2611814 65788
7.8741741 -2.7707677 -0.12116592 65788
7.8801656 -2.7447639 -0.12016391 65788
7.8491931 -2.7647784 -0.065156855 65788
7.8611851 -2.7417731 -0.065157257 65788
7.8871784 -2.722764 -0.065162823 65788
7.8409944 -2.7521534 -0.1158843 65788
7.8289938 -2.7061512 -0.11488617 65788
7.8199944 -2.7311525 -0.11488528 65788
7.8039927 -2.7141521 -0.059886053 65788
7.806993 -2.7431536 -0.059884917 65788
7.7719927 -2.6891515 -0.058887258 65788
8.2630768 -2.8456335 -0.44530419 65788
8.248085 -2.8696394 -0.44430292 65788
8.1500874 -2.8636692 -0.43727002 65788
8.2160892 -2.8296497 -0.39828643 65788
8.1710939 -2.842664 -0.3962737 65788
7.9780903 -2.8027201 -0.38220471 65788
8.0250006 -2.7701492 -0.42388222 65788
8.0110006 -2.7801502 -0.42288193 65788
7.9099922 -2.7651522 -0.013883279 65788
7.9049926 -2.7911534 -0.013882316 65788
7.8989921 -2.7201502 -0.012885102 65788
7.8979921 -2.7471516 -0.012884066 65788
7.8859916 -2.7441516 0.030115727 65788
7.8649912 -2.7641532 0.030116336 65788
8.2252235 -2.8386741 -0.02529072 65788
8.1812344 -2.8666892 -0.024280602 65788
8.2012272 -2.8456819 -0.024283947 65788
8.1402397 -2.8817024 -0.023269489 65788
7.9859915 -2.7511494 0.028116753 65788
7.6329856 -2.566195 -1.6051024 65788
7.563983 -2.5692241 -1.5151055 65788
7.5359836 -2.5732253 -1.5101076 65788
7.5269837 -2.5302224 -1.5060945 65788
7.598979 -2.5952566 -1.4301125 65788
7.6019793 -2.5702553 -1.4291047 65788
7.6019754 -2.5962811 -1.3601129 65788
7.6089759 -2.5712793 -1.3591048 65788
7.6536164 -2.5827186 -1.5360655 65788
7.6366234 -2.6027257 -1.5340629 65788
7.6586866 -2.6237326 -1.3730733 65788
7.6596789 -2.5977302 -1.3720696 65788
7.6626706 -2.5717268 -1.3710666 65788
7.7780242 -2.6721499 -1.5638878 65788
7.9130244 -2.6631463 -1.5898873 65788
7.668973 -2.5892992 -1.3111086 65788
7.6039705 -2.6163273 -1.2311189 65788
7.6019711 -2.5493226 -1.227098 65788
7.5889707 -2.5983264 -1.2271138 65788
7.5859714 -2.5703244 -1.2251052 65788
7.8409643 -2.6443522 -1.1881206 65788
7.6569624 -2.5873921 -1.0401082 65788
7.6449623 -2.6103935 -1.0401158 65788
7.7099586 -2.6454153 -0.99212497 65788
7.6969595 -2.614413 -0.98911566 65788
7.6849599 -2.5824111 -0.98610598 65788
7.6419582 -2.5864241 -0.94410849 65788
7.6299582 -2.609426 -0.94311613 65788
7.6339588 -2.5574226 -0.94109964 65788
7.6277061 -2.6107454 -1.3070613 65788
7.6246986 -2.5827439 -1.305056 65788
7.6196899 -2.5547435 -1.3030499 65788
7.610734 -2.6137559 -1.2340561 65788
7.6187258 -2.5897512 -1.234055 65788
7.6067176 -2.5587528 -1.2300464 65788
7.6447601 -2.6137509 -1.1590673 65788
7.6397514 -2.5857503 -1.1570613 65788
7.6367431 -2.557749 -1.155056 65788
7.6448026 -2.6187596 -1.0420681 65788
7.6527901 -2.5807543 -1.0420647 65788
7.6417942 -2.5907586 -1.0400627 65788
7.6518273 -2.6337628 -0.9860726 65788
7.6508231 -2.6197619 -0.98507017 65788
7.6498141 -2.5927601 -0.98406565 65788
7.6468067 -2.564759 -0.98206025 65788
7.6450181 -2.6091502 -1.3078912 65788
7.6460176 -2.5831487 -1.3068923 65788
7.6330175 -2.5651481 -1.3038931 65788
7.6320167 -2.614151 -1.2348912 65788
7.6270161 -2.5861495 -1.2328924 65788
7.6320162 -2.5611482 -1.2318932 65788
7.6530151 -2.6101501 -1.1588912 65788
7.6520147 -2.5831487 -1.1568922 65788
7.6500144 -2.5691481 -1.1558928 65788
7.6730127 -2.6211503 -1.0448905 65788
7.6670122 -2.5791481 -1.0418923 65788
7.6570125 -2.6021497 -1.0408915 65788
7.6630116 -2.6171503 -0.98489088 65788
7.6520109 -2.5871489 -0.98189205 65788
7.8729696 -2.6853008 -1.3511324 65788
7.945962 -2.7353561 -1.2091459 65788
7.8939638 -2.6903539 -1.1991334 65788
7.7319541 -2.6594474 -0.90412867 65788
7.7139549 -2.6264455 -0.90011883 65788
7.7189555 -2.5874426 -0.89910644 65788
7.7169557 -2.6004436 -0.89911062 65788
7.8959417 -2.709537 -0.67113942 65788
7.665854 -2.6187637 -0.89607489 65788
7.6758504 -2.6087599 -0.89607656 65788
7.6628418 -2.5777614 -0.89306748 65788
7.6088729 -2.6027842 -0.83105385 65788
7.597868 -2.5857861 -0.82904756 65788
7.5978603 -2.5597842 -0.82804358 65788
7.6518879 -2.6137748 -0.7960695 65788
7.6568794 -2.5877712 -0.79506713 65788
7.6429081 -2.6227813 -0.74806798 65788
7.8639593 -2.707727 -0.67015302 65788
7.8699465 -2.667722 -0.6691488 65788
7.8739381 -2.6417191 -0.66914612 65788
7.8459539 -2.6867311 -0.66814393 65788
7.893971 -2.6907201 -0.62116015 65788
7.8889618 -2.6617196 -0.62015408 65788
7.6770096 -2.6021492 -0.89389133 65788
7.6700096 -2.6271508 -0.89389038 65788
7.6590099 -2.6361513 -0.89289016 65788
7.6620092 -2.5701478 -0.89089262 65788
7.6210079 -2.5871499 -0.82989228 65788
7.6150079 -2.6111515 -0.82989144 65788
7.6050076 -2.5541484 -0.82689375 65788
7.6770082 -2.6411514 -0.79688984 65788
7.8090038 -2.6271474 -0.6088894 65788
7.7890038 -2.6481488 -0.6078887 65788
7.7830043 -2.6731505 -0.60788774 65788
7.8750024 -2.6821485 -0.51388675 65788
7.8700023 -2.7081499 -0.5138858 65788
8.0859394 -2.718538 -0.69013649 65788
8.0529394 -2.7355392 -0.68714279 65788
8.1929359 -2.7535589 -0.64814425 65788
8.086936 -2.761559 -0.6391499 65788
8.0980253 -2.7786717 -0.53724015 65788
8.0700188 -2.7556787 -0.53422755 65788
8.0680103 -2.7266769 -0.53322244 65788
7.7821298 -2.6777852 -0.1651217 65788
7.8781524 -2.7027614 -0.12015683 65788
7.8891439 -2.6787562 -0.12015672 65788
7.8931355 -2.6527534 -0.12015402 65788
7.9181762 -2.7197545 -0.066172473 65788
7.8269939 -2.6511483 -0.11488831 65788
7.825994 -2.6781497 -0.11488727 65788
7.8239932 -2.6221468 -0.11388946 65788
7.7879925 -2.6131473 -0.058890071 65788
7.7929926 -2.6421487 -0.058888912 65788
7.7749925 -2.6631503 -0.058888238 65788
8.244071 -2.8246381 -0.44329479 65788
8.1300554 -2.7576675 -0.43324739 65788
8.1240444 -2.7266674 -0.43224066 65788
8.0291681 -2.7027199 -0.070206039 65788
7.9901729 -2.7167327 -0.069195472 65788
7.9599986 -2.7331491 -0.31788412 65788
9.0389166 -3.0256209 -0.61820406 65788
7.9209919 -2.672147 -0.012886803 65788
7.8789921 -2.6851487 -0.011886607 65788
8.3092127 -2.8096468 -0.027313732 65788
8.2742195 -2.8266587 -0.026304889 65788
8.0769911 -2.7121453 0.026115892 65788
8.071991 -2.7521474 0.026117425 65788
8.064991 -2.7361469 0.027116748 65788
7.5819836 -2.5222204 -1.5160902 65788
7.575984 -2.4942179 -1.5130816 65788
7.555984 -2.4612164 -1.5070717 65788
7.6219797 -2.5232511 -1.4300892 65788
7.6079793 -2.5452533 -1.4280965 65788
7.7019758 -2.5222731 -1.3730865 65788
7.6919756 -2.5462754 -1.3720944 65788
7.6499758 -2.5582771 -1.3660995 65788
7.6119771 -2.4792724 -1.3550757 65788
7.6546082 -2.5557163 -1.5340614 65788
7.6426001 -2.5247178 -1.5300527 65788
7.6465926 -2.4997146 -1.5290502 65788
7.6445885 -2.485714 -1.5280472 65788
7.6316342 -2.521728 -1.4330487 65788
7.6376266 -2.4977241 -1.4330468 65788
7.662663 -2.5447249 -1.3690624 65788
7.6576595 -2.5297253 -1.3670584 65788
7.6406507 -2.4977281 -1.363048 65788
7.7110224 -2.5681462 -1.5438924 65788
7.6790214 -2.5301449 -1.534894 65788
7.6400208 -2.5041444 -1.5258954 65788
7.6029744 -2.5002947 -1.2950824 65788
7.5969744 -2.5122957 -1.2950864 65788
7.5929742 -2.537298 -1.2950945 65788
7.5899749 -2.4702928 -1.2910734 65788
7.6079717 -2.4983187 -1.2250819 65788
7.5909719 -2.5193207 -1.223089 65788
7.8719649 -2.5583453 -1.1890926 65788
7.8319645 -2.6143501 -1.1861115 65788
7.8429651 -2.5763471 -1.1850991 65788
7.8369651 -2.5883482 -1.1851031 65788
7.6699634 -2.4983852 -1.03808 65788
7.6609631 -2.5213871 -1.0380874 65788
7.6579633 -2.5343881 -1.0380915 65788
7.6449628 -2.5563896 -1.0370989 65788
7.7389593 -2.5874107 -0.99410588 65788
7.7219601 -2.5284069 -0.98808777 65788
7.7019596 -2.5484083 -0.9870947 65788
7.6609588 -2.5264201 -0.94308907 65788
7.6569595 -2.4984176 -0.94208032 65788
7.6339593 -2.5304203 -0.94009113 65788
7.6126862 -2.5387444 -1.3010452 65788
7.6226702 -2.4897373 -1.3000408 65788
7.6086779 -2.5117433 -1.2990396 65788
7.6187024 -2.5097454 -1.2290426 65788
7.5977097 -2.5297534 -1.2270389 65788
7.6056981 -2.492748 -1.2260358 65788
7.6427393 -2.5467463 -1.1560563 65788
7.6297307 -2.515748 -1.1520473 65788
7.6337228 -2.4907446 -1.1520445 65788
7.632782 -2.5477579 -1.0370532 65788
7.6337733 -2.5207553 -1.0360491 65788
7.6247654 -2.491756 -1.0330417 65788
7.6717997 -2.5467496 -0.98406565 65788
7.6677909 -2.5187488 -0.98305994 65788
7.658783 -2.4897494 -0.98005253 65788
7.6390171 -2.5411465 -1.3038939 65788
7.6400166 -2.5141451 -1.301895 65788
7.6200161 -2.481144 -1.2968965 65788
7.6230159 -2.5311465 -1.2288945 65788
7.6290154 -2.4931445 -1.2278959 65788
7.6210151 -2.5171459 -1.227895 65788
7.6530142 -2.5431464 -1.1548938 65788
7.655014 -2.5171449 -1.1538948 65788
7.6460133 -2.4871438 -1.150896 65788
7.6620121 -2.5501466 -1.0388935 65788
7.6700115 -2.4991438 -1.0378953 65788
7.6420116 -2.5171454 -1.0348948 65788
7.6920109 -2.5731471 -0.98689228 65788
7.6630106 -2.5371459 -0.98089391 65788
7.6540098 -2.5071447 -0.97789514 65788
7.7369561 -2.539439 -0.89909083 65788
7.7169561 -2.5604408 -0.89709806 65788
7.7369537 -2.5714607 -0.84310091 65788
7.6878347 -2.5597525 -0.89607286 65788
7.6788263 -2.529753 -0.89306527 65788
7.6838188 -2.5047493 -0.89306301 65788
7.6048522 -2.5347803 -0.82804197 65788
7.6028438 -2.5077786 -0.8270371 65788
7.597836 -2.4797781 -0.82503116 65788
7.6778731 -2.5687633 -0.79707104 65788
7.6748643 -2.5407617 -0.79506564 65788
7.6628594 -2.5237641 -0.79305917 65788
7.6588712 -2.5077674 -0.74605531 65788
7.636879 -2.5267758 -0.74405116 65788
7.8979306 -2.6217103 -0.67115086 65788
7.8959227 -2.5937085 -0.67014587 65788
7.9419479 -2.6237009 -0.62316555 65788
7.9149551 -2.6427102 -0.62215966 65788
7.6900086 -2.5261447 -0.89289415 65788
7.6660085 -2.5451465 -0.88989359 65788
7.6540079 -2.4881434 -0.88589585 65788
7.6240072 -2.5081453 -0.82689536 65788
7.6160078 -2.5321472 -0.82689446 65788
7.6060066 -2.4751441 -0.82389671 65788
7.6770067 -2.5481465 -0.7938934 65788
7.6740065 -2.5201449 -0.7918945 65788
7.8590035 -2.589144 -0.61189049 65788
7.8310037 -2.6071458 -0.60988998 65788
8.2089386 -2.6885357 -0.70112342 65788
8.1759386 -2.706537 -0.69913006 65788
8.1279402 -2.7185378 -0.69413525 65788
8.3959341 -2.7345576 -0.66713232 65788
8.2739363 -2.7235565 -0.65513241 65788
8.2619352 -2.7485585 -0.65514058 65788
8.007906 -2.6206727 -0.73718655 65788
7.9719176 -2.5916855 -0.67717034 65788
7.9619408 -2.6026931 -0.6251688 65788
8.1209965 -2.6876581 -0.53723371 65788
8.0760021 -2.7006726 -0.53322107 65788
7.9870019 -2.6361434 -0.52188778 65788
7.9631233 -2.6207302 -0.1221719 65788
7.9369993 -2.602143 -0.41388944 65788
7.8789973 -2.5681427 -0.30989116 65788
7.8289933 -2.5561433 -0.11389199 65788
7.8189931 -2.5931454 -0.11389062 65788
7.8129935 -2.578145 -0.11289124 65788
7.7879925 -2.5861459 -0.057891116 65788
8.1040354 -2.6916709 -0.43022877 65788
8.1230192 -2.6416616 -0.43022728 65788
8.1050262 -2.6636691 -0.42922482 65788
7.9941211 -2.6167202 -0.12318138 65788
8.0591526 -2.6567078 -0.070208751 65788
8.0171576 -2.6697214 -0.069197059 65788
7.7759919 -2.5411437 -0.05689295 65788
7.7719917 -2.5531445 -0.056892514 65788
7.9029913 -2.6381459 -0.012888259 65788
7.9059916 -2.5701423 -0.011890898 65788
7.8979912 -2.5951438 -0.011889975 65788
7.9019914 -2.6101444 -0.011889359 65788
8.4212036 -2.7886126 -0.029347094 65788
8.373209 -2.8016276 -0.028333405 65788
8.0699902 -2.6251411 0.027112411 65788
8.064991 -2.6511426 0.027113404 65788
8.071991 -2.6821439 0.027114676 65788
8.5712004 -2.7925677 -0.033396691 65788
8.466197 -2.7735977 -0.030359499 65788
9.0249186 -2.9736171 -0.61618835 65788
9.0139179 -3.0016191 -0.61619735 65788
8.9809198 -2.9286134 -0.61117566 65788
9.1059084 -3.154671 -0.50824207 65788
9.0299082 -3.1606705 -0.50324613 65788
9.0519066 -3.1426854 -0.4572399 65788
9.0309067 -3.182688 -0.45725289 65788
9.1329079 -3.0996675 -0.50922424 65788
9.1099081 -3.1246688 -0.50823265 65788
9.0759163 -2.9956381 -0.56519371 65788
7.6849861 -2.4631863 -1.6080685 65788
7.646987 -2.4241848 -1.5980574 65788
7.5639839 -2.4112129 -1.5050557 65788
7.5569839 -2.435215 -1.5050634 65788
7.5189853 -2.3842125 -1.4950485 65788
7.6749792 -2.474246 -1.4360722 65788
7.6709795 -2.4862471 -1.4360762 65788
7.6379805 -2.4362447 -1.4270613 65788
7.6079803 -2.4002428 -1.4200509 65788
7.6219773 -2.4562707 -1.3550681 65788
7.6029778 -2.424269 -1.3500586 65788
7.599978 -2.3962669 -1.3480499 65788
7.6485806 -2.460711 -1.5270448 65788
7.6525731 -2.4357073 -1.5260421 65788
7.6436186 -2.4727201 -1.433045 65788
7.6516027 -2.4227138 -1.4310397 65788
7.6276097 -2.4407225 -1.4280347 65788
7.6546435 -2.4757221 -1.364049 65788
7.6606274 -2.424716 -1.3620429 65788
7.6396351 -2.4437242 -1.3590391 65788
7.6590209 -2.4831431 -1.5288961 65788
7.6500206 -2.4541416 -1.5248972 65788
7.6540198 -2.4281402 -1.5238982 65788
7.5899754 -2.4442906 -1.2900653 65788
7.5879755 -2.417289 -1.2880569 65788
7.6839714 -2.4303119 -1.234058 65788
7.6239729 -2.437314 -1.2240621 65788
7.6109724 -2.4723167 -1.2240734 65788
7.5999727 -2.4423146 -1.2210643 65788
7.8759656 -2.5323436 -1.1880844 65788
7.6049695 -2.4203403 -1.1420573 65788
7.6759634 -2.4473815 -1.0360637 65788
7.6669636 -2.4703832 -1.0360712 65788
7.7149601 -2.4984047 -0.98607862 65788
7.7149611 -2.4454007 -0.98406196 65788
7.7089605 -2.4704027 -0.98407 65788
7.6286626 -2.4647336 -1.2990388 65788
7.619647 -2.4087319 -1.2950271 65788
7.6076541 -2.4317374 -1.2940267 65788
7.6156821 -2.4427409 -1.2250311 65788
7.5946894 -2.462749 -1.2230275 65788
7.602674 -2.4127426 -1.2220222 65788
7.6337152 -2.4647427 -1.1500404 65788
7.6327071 -2.4377408 -1.1490359 65788
7.626699 -2.4097407 -1.1470296 65788
7.6297574 -2.4667525 -1.0330395 65788
7.6377497 -2.4427483 -1.0330383 65788
7.6417422 -2.4177451 -1.0320357 65788
7.6747713 -2.4547417 -0.98105222 65788
7.6557751 -2.4617481 -0.97804719 65788
7.6537628 -2.4217455 -0.97604018 65788
7.6350164 -2.4601424 -1.2978971 65788
7.6370158 -2.4341409 -1.2968981 65788
7.6220155 -2.4161403 -1.2938989 65788
7.6180148 -2.4631431 -1.2248971 65788
7.6260138 -2.4131403 -1.223899 65788
7.6130142 -2.4351416 -1.2228982 65788
7.6550136 -2.4641421 -1.1518967 65788
7.6610126 -2.4391406 -1.1508977 65788
7.6420126 -2.4201403 -1.1478986 65788
7.6610103 -2.443141 -1.0338976 65788
7.6500111 -2.4661427 -1.0338968 65788
7.6460104 -2.4251404 -1.0308985 65788
7.68401 -2.4901431 -0.98189557 65788
7.6770101 -2.4751422 -0.97989625 65788
7.6640096 -2.4441409 -0.97689754 65788
7.6680093 -2.4191394 -0.97589844 65788
7.7619562 -2.5214376 -0.90108442 65788
7.6878104 -2.4787462 -0.89206022 65788
7.6778054 -2.4627481 -0.89105451 65788
7.668797 -2.4337487 -0.88804698 65788
7.6068277 -2.4567735 -0.82503045 65788
7.6038237 -2.4417729 -0.82402706 65788
7.6078157 -2.41677 -0.82402444 65788
7.9409122 -2.5676932 -0.67315656 65788
7.6650081 -2.4781427 -0.88789618 65788
7.6710076 -2.4531415 -0.88689715 65788
7.6680079 -2.4261401 -0.88589817 65788
7.6150064 -2.4651432 -0.82489705 65788
7.6100063 -2.4371421 -0.82289821 65788
7.6100063 -2.4111407 -0.82189918 65788
7.7810025 -2.4961412 -0.60189468 65788
8.2589397 -2.60553 -0.70309597 65788
8.2189398 -2.6635342 -0.70111531 65788
8.2089405 -2.6035297 -0.6990968 65788
8.1909409 -2.6265316 -0.69710457 65788
8.1669064 -2.5846257 -0.69623286 65788
8.1889305 -2.605624 -0.64624327 65788
8.1289368 -2.6146431 -0.6412251 65788
8.0160017 -2.5361376 -0.57189149 65788
8.0040007 -2.5441382 -0.52089125 65788
7.9750013 -2.5631399 -0.51889068 65788
7.802084 -2.5347686 -0.1641061 65788
7.9439988 -2.5351393 -0.41289201 65788
7.9459991 -2.5081377 -0.41189307 65788
7.927999 -2.558141 -0.41189122 65788
7.921999 -2.5691416 -0.41189083 65788
7.9329972 -2.5171387 -0.31189281 65788
7.889997 -2.5581419 -0.31089148 65788
7.8579965 -2.5211406 -0.30789316 65788
7.8279929 -2.474139 -0.11289521 65788
7.8349929 -2.5041404 -0.11289398 65788
7.8099928 -2.5231421 -0.11189342 65788
8.1370106 -2.617656 -0.43122816 65788
8.1001015 -2.5666852 -0.12620819 65788
8.0671082 -2.5846963 -0.12520021 65788
8.0111132 -2.5947139 -0.1231835 65788
8.5789318 -2.7185576 -0.68312192 65788
8.5129318 -2.7275574 -0.67812669 65788
8.4449339 -2.7205567 -0.67112648 65788
7.7899919 -2.4911408 -0.056894802 65788
7.7779918 -2.5151424 -0.056893948 65788
7.7669916 -2.4571397 -0.055896293 65788
7.9349914 -2.5521407 -0.012891404 65788
7.9089909 -2.5161393 -0.011893001 65788
8.0849905 -2.5591376 0.027109891 65788
8.0779905 -2.5991397 0.027111435 65788
8.0709906 -2.5691383 0.028110197 65788
8.8191919 -2.7814939 -0.039476056 65788
8.6971903 -2.7735293 -0.036434956 65788
8.6431971 -2.7865462 -0.035419296 65788
9.1480665 -2.9243724 -0.50960541 65788
9.0169201 -2.9086125 -0.61316842 65788
8.9230223 -2.8884292 -0.60852635 65788
7.6479864 -2.399183 -1.5970494 65788
7.6539869 -2.374181 -1.5960412 65788
7.6499867 -2.3601801 -1.595037 65788
7.5379848 -2.3642108 -1.4970416 65788
7.5449853 -2.3142066 -1.4960257 65788
7.5399857 -2.3382084 -1.4960333 65788
7.5679812 -2.3612413 -1.4100398 65788
7.5609813 -2.3332396 -1.4070311 65788
7.6409779 -2.3562632 -1.353036 65788
7.6169777 -2.3752651 -1.3490427 65788
7.6495652 -2.4077065 -1.5240368 65788
7.6495581 -2.3817043 -1.5220326 65788
7.6475501 -2.3547027 -1.5200276 65788
7.6475468 -2.3417017 -1.5190257 65788
7.6555953 -2.3977106 -1.4300371 65788
7.644587 -2.3677115 -1.4270288 65788
7.6335835 -2.3507135 -1.4230224 65788
7.6496196 -2.3947172 -1.3580346 65788
7.6366153 -2.37672 -1.3550276 65788
7.6396079 -2.351717 -1.3540245 65788
7.6520195 -2.4011388 -1.5218992 65788
7.652019 -2.3621366 -1.5199008 65788
7.6410189 -2.3721373 -1.5179005 65788
7.7049751 -2.3612821 -1.3050356 65788
7.6519756 -2.358283 -1.2960364 65788
7.6149755 -2.3732853 -1.2900422 65788
7.6049757 -2.396287 -1.2900497 65788
7.728972 -2.4173102 -1.2400526 65788
7.6769724 -2.3743081 -1.2300407 65788
7.6069732 -2.3263063 -1.2160275 65788
7.6419697 -2.3403337 -1.144031 65788
7.6219702 -2.3463345 -1.1410334 65788
7.59197 -2.3903384 -1.1380483 65788
7.5899701 -2.3633363 -1.1370397 65788
7.7239647 -2.3683748 -1.0400373 65788
7.6799641 -2.4213793 -1.0360553 65788
7.7739611 -2.4233983 -0.99105322 65788
7.7639618 -2.3943963 -0.98804432 65788
7.7279611 -2.4363997 -0.98505867 65788
7.6116428 -2.3937335 -1.2930222 65788
7.6006351 -2.3637345 -1.2890137 65788
7.6056275 -2.3397305 -1.2890116 65788
7.6306515 -2.3427284 -1.2230202 65788
7.5936656 -2.3827429 -1.2190145 65788
7.6046586 -2.360738 -1.2190145 65788
7.6436958 -2.4017344 -1.1490339 65788
7.6306796 -2.3447344 -1.1440206 65788
7.6186876 -2.3677397 -1.1430203 65788
7.6307373 -2.4007471 -1.0300294 65788
7.6307297 -2.3747449 -1.0290254 65788
7.630722 -2.348743 -1.0270212 65788
7.6597548 -2.3967421 -0.97603822 65788
7.6607471 -2.3707397 -0.97503448 65788
7.6537385 -2.3427393 -0.97302771 65788
7.6180148 -2.3891389 -1.2919 65788
7.6200147 -2.3631375 -1.2909009 65788
7.6160145 -2.3351362 -1.2889022 65788
7.6220131 -2.3461366 -1.2199017 65788
7.6130133 -2.3821387 -1.2199003 65788
7.6050134 -2.3541374 -1.2169014 65788
7.6540117 -2.3711371 -1.1469004 65788
7.6410122 -2.3931386 -1.1458997 65788
7.6480112 -2.3431358 -1.1449015 65788
